# .PCD v0.7 - Point Cloud Data file format
VERSION 0.7
FIELDS x y z
SIZE 4 4 4
TYPE F F F
COUNT 1 1 1
WIDTH 1428
HEIGHT 1
VIEWPOINT 0 0 0 1 0 0 0
POINTS 1428
DATA ascii
3.4262149 -0.11151693 -0.23110951
3.4261527 -0.14682813 -0.178394
3.1261122 0.18085063 -0.28489202
3.1259401 0.15482032 -0.2417535
3.4257898 0.12834103 -0.2208837
3.4256427 0.09494026 -0.1621765
3.1263449 0.39704707 -0.28859562
3.1260972 0.37240577 -0.23963541
3.4258544 0.36896369 -0.21235786
3.4256322 0.33773175 -0.14767577
3.9963036 -0.071217373 -0.0488501
4.2270823 0.21416619 -0.046200756
3.4264171 -0.17450707 -0.232379
3.1267147 -0.17775753 -0.26465595
3.4259324 0.068885751 -0.24137709
3.1261723 0.041769654 -0.26753393
3.2928936 0.30334097 -0.23911799
3.1261187 0.26057473 -0.2723397
3.1479385 0.5187186 -0.23678304
3.1265516 0.48091471 -0.2791546
3.1266067 -0.065826312 -0.28649685
3.1618412 -0.10264 -0.24131311
3.1262684 0.15237807 -0.27693447
3.2903264 0.12136988 -0.23918757
3.1264184 0.37208697 -0.26935366
3.4074306 0.36342666 -0.23687416
3.9752955 -0.025763592 -0.046348721
3.7748914 0.24455294 -0.043548692
3.7256908 0.50419176 -0.04630753
3.5241411 -0.15905508 -0.14602882
3.4256437 -0.18108773 -0.20509997
3.212924 -0.18862289 -0.24301122
3.1262116 -0.2038472 -0.28375673
3.4249828 0.091647372 -0.14932607
3.4252059 0.059895743 -0.20905204
3.2136116 0.035267692 -0.24103451
3.1256363 0.011996922 -0.27589774
3.4251211 0.33406883 -0.16091596
3.4252591 0.29975805 -0.21466269
3.1998577 0.25785801 -0.23908636
3.1255322 0.2279433 -0.26957795
3.1716962 0.47884744 -0.23716903
3.1259036 0.44561249 -0.26478323
3.1262312 0.3748008 -0.29463592
3.7252164 -0.016471883 -0.13280119
3.7251089 -0.042266257 -0.090694293
3.813699 -0.074345127 -0.045007098
3.7251427 0.24297258 -0.13645031
3.7249641 0.21841501 -0.087178275
4.0548306 0.19854932 -0.04209131
3.6603873 0.49618983 -0.13693157
3.7253072 0.47954214 -0.084478825
4.3008194 0.50743473 -0.038809385
3.7252595 -0.15926059 -0.057993922
3.7255695 -0.1886348 -0.12832682
3.4258323 -0.19000684 -0.16933295
3.4261401 -0.21359687 -0.22220095
3.7249477 0.10518631 -0.069104061
3.7251852 0.073332883 -0.13272655
3.4253805 0.049192347 -0.16704185
3.4256132 0.023950472 -0.21343124
3.7251401 0.36893106 -0.081491292
3.71351 0.3342016 -0.13769493
3.4254153 0.28836328 -0.16597083
3.425565 0.26181814 -0.20591876
3.4260001 0.50181222 -0.19962972
3.4261305 -0.23580945 -0.20804472
3.4257724 0.0038125205 -0.20989163
3.4256496 -0.022886708 -0.16885391
3.7255459 -0.066101588 -0.14050169
3.7254372 -0.10051746 -0.082549177
3.4258947 0.24117225 -0.21298324
3.425699 0.21560323 -0.16549155
3.725528 0.19520374 -0.12996553
3.7253451 0.1627517 -0.065291248
3.4264941 0.47926119 -0.21731821
3.4262328 0.45518202 -0.16332212
3.7260036 0.45740396 -0.12067436
3.7257574 0.42725044 -0.049245309
4.1022501 -0.21560779 -0.047971893
3.7256615 -0.21012917 -0.096942313
3.6252532 -0.22397265 -0.14555497
3.8751729 0.075457849 -0.045289211
3.7254028 0.050600551 -0.094691887
3.7255399 0.026350942 -0.14268541
3.7255683 0.33833218 -0.04564891
3.7256317 0.3107464 -0.093294352
3.7257011 0.28572449 -0.13413233
3.1266136 -0.18416993 -0.26702803
3.1948428 -0.21904638 -0.24085446
3.126312 0.033197314 -0.26792502
3.2214053 0.002940174 -0.23859504
3.4259701 -0.035382386 -0.21094534
3.4257767 -0.069472022 -0.15633944
3.1264873 0.24925117 -0.270372
3.2335124 0.22762094 -0.23633662
3.4259806 0.20485258 -0.20105559
3.4257019 0.17254671 -0.14044997
3.1271343 0.46560863 -0.2743569
3.2310643 0.45301074 -0.23409943
3.426486 0.44607839 -0.19277275
3.6020334 0.43162781 -0.13733134
3.725692 -0.23349534 -0.057967365
3.7254689 0.026670963 -0.047845777
3.8892186 0.29516461 -0.043851178
3.3754814 -0.095431864 -0.24254528
3.1264515 -0.10928205 -0.27686203
3.2577183 0.1427341 -0.23970585
3.1263916 0.1097806 -0.28001323
3.1288328 0.36304516 -0.23706299
3.126821 0.32885972 -0.2851699
3.1265604 -0.2177384 -0.28389576
3.1261821 0.0014679561 -0.27301201
3.3301332 -0.041026842 -0.24283519
3.1262913 0.22066113 -0.26412728
3.4260416 0.19723894 -0.23685113
3.1268899 0.44045746 -0.25714147
3.4265828 0.4413617 -0.22330739
4.3291674 0.062092829 -0.047970969
4.0868225 0.35023052 -0.044975284
3.4256992 -0.072580509 -0.15651275
3.4259155 -0.10251465 -0.22032994
3.1261435 -0.10972961 -0.24606463
3.126384 -0.1339279 -0.29409102
3.4257557 0.17031169 -0.16655125
3.425895 0.13743879 -0.22442913
3.1260338 0.1076368 -0.24417642
3.1261959 0.081351846 -0.28641084
3.4263127 0.41265872 -0.17835833
3.4263639 0.37769109 -0.23025842
3.1264038 0.3249892 -0.24387172
3.1264803 0.29799154 -0.28031355
3.127243 0.51653808 -0.27579662
3.1270292 0.22020407 -0.29311481
3.1276753 0.44328538 -0.281757
3.726239 -0.19246317 -0.12065711
3.7261992 -0.21836485 -0.083659358
3.7261648 0.0682 -0.1237847
3.7260611 0.043053221 -0.0796028
4.3145728 0.0012161174 -0.047794804
3.7265754 0.32781959 -0.12773034
3.7264116 0.30317163 -0.076336391
4.6125731 0.31808901 -0.044606742
3.7261035 -0.07337486 -0.077988438
3.7070324 -0.1028468 -0.14498609
3.4264786 -0.11321287 -0.18373339
3.4266818 -0.13730554 -0.23463576
3.7262831 0.1901138 -0.089347824
3.5923636 0.15585011 -0.14216039
3.4264925 0.12551986 -0.1817535
3.4266224 0.099694952 -0.22621326
3.7269638 0.45382801 -0.10210294
3.4659023 0.39728436 -0.13952434
3.426991 0.3650395 -0.18104781
3.4270418 0.33781442 -0.21908936
3.4267719 -0.1559771 -0.19301642
3.4266572 -0.18287708 -0.15657948
3.7265477 -0.24111457 -0.13210669
3.4267392 0.082431689 -0.19474913
3.4265449 0.056224566 -0.15184341
3.7263737 0.021051841 -0.12003104
3.7261746 -0.012178416 -0.060081791
3.4271865 0.31998649 -0.19765623
3.426918 0.29540676 -0.1482621
3.7266924 0.28233832 -0.10922893
3.7264209 0.25093961 -0.042514939
3.7261298 -0.090873383 -0.051768295
3.7262914 -0.11641055 -0.11141569
3.464047 -0.12314584 -0.14639939
3.7258384 0.17064649 -0.056928851
3.7259419 0.14383641 -0.10954143
3.5579312 0.11783856 -0.14427051
3.7260394 0.43277338 -0.063001007
3.726078 0.40440562 -0.10858285
3.643322 0.37198436 -0.14203137
3.1270916 -0.10893286 -0.2567834
3.3300991 -0.15208496 -0.2420956
3.4269912 -0.19203414 -0.20745809
3.4269378 -0.22750832 -0.15697777
3.1267352 0.10794988 -0.25830168
3.3526671 0.079954833 -0.23979571
3.4264491 0.048327461 -0.19652888
3.4770293 0.013486788 -0.14344016
3.1268537 0.32369027 -0.2613118
3.3601117 0.3133322 -0.23750082
3.4263983 0.28862992 -0.18722002
3.6851985 0.26868621 -0.14106271
3.7264006 -0.13826983 -0.065751478
3.7260115 0.12198991 -0.056144644
3.7261093 0.38234895 -0.04704066
3.3135955 -0.246942 -0.24221523
3.2132428 -0.006706608 -0.2396313
3.1271596 -0.033627298 -0.287918
3.1267395 0.21742818 -0.24003254
3.1269822 0.18520255 -0.29193962
3.1271515 0.43956012 -0.25150645
3.1272922 0.40423352 -0.29805332
3.1279845 0.505665 -0.29774681
3.7264528 -0.12837917 -0.14198641
3.7263713 -0.15487598 -0.10262768
3.7262945 -0.18408082 -0.056508068
3.6537719 0.1308589 -0.14060876
3.7261727 0.10551326 -0.098731056
3.7260239 0.077701777 -0.045558557
3.5542049 0.377496 -0.13822031
3.7264605 0.36587349 -0.095721461
3.8881996 0.34990293 -0.041021571
3.7261035 -0.0086673955 -0.054910403
3.72632 -0.039258353 -0.12122402
3.4265156 -0.053193614 -0.15887465
3.4267399 -0.077887781 -0.20780987
3.7262301 0.25478205 -0.066856265
3.7263708 0.22218107 -0.12644309
3.4264841 0.18536767 -0.1573492
3.4266312 0.16008008 -0.1998107
3.7268569 0.51911235 -0.080109112
3.7269142 0.48479384 -0.13295633
3.4269395 0.42531076 -0.15700085
3.4270051 0.39856115 -0.19301373
3.4270642 -0.095720865 -0.21394603
3.4269233 -0.12309668 -0.17545366
3.5781403 -0.16451854 -0.14077334
3.7266717 -0.21108167 -0.095187545
3.426975 0.14240962 -0.21633011
3.426749 0.11567682 -0.17139788
3.711657 0.085966945 -0.13825169
3.7263291 0.05212469 -0.077213995
3.4273658 0.37967351 -0.22000681
3.4270623 0.3551195 -0.16859905
3.7268019 0.34738719 -0.12925403
3.7264915 0.31605387 -0.060579747
4.2851272 -0.049401041 -0.049933381
3.7261283 -0.054427445 -0.088823862
3.7262776 -0.078094333 -0.13958091
4.0247855 0.24256934 -0.047251083
3.7256975 0.20631664 -0.087227181
3.725791 0.18133929 -0.13080975
3.7715595 0.49996704 -0.044863224
3.7257543 0.46735227 -0.086455591
3.7257874 0.44210756 -0.12285367
3.1274183 -0.19959293 -0.29259878
3.1267004 0.023492698 -0.29989207
3.1272776 -0.051772367 -0.27687797
3.1271784 -0.079504162 -0.24008279
3.4271507 -0.13039064 -0.22582985
3.4270675 -0.16579421 -0.17366695
3.1268992 0.16436024 -0.27860412
3.141433 0.13842975 -0.23755333
3.4265614 0.11018385 -0.21516554
3.4263854 0.076714993 -0.15701053
3.1269939 0.38045087 -0.28191614
3.1443863 0.35718143 -0.23533823
3.4264653 0.35011986 -0.20621915
3.4262075 0.31943995 -0.14206962
3.8796716 -0.085420378 -0.044749275
4.0977135 0.18969586 -0.041652847
4.3280659 0.49796653 -0.038190141
3.4275131 -0.19405025 -0.23133892
3.1278534 -0.19502753 -0.2641831
3.4051335 0.050510313 -0.23773502
3.1271698 0.024702029 -0.26662162
3.273041 0.28419083 -0.23510718
3.1269779 0.24351911 -0.27099833
3.1313024 0.49910009 -0.23268588
3.1272745 0.46368018 -0.2773824
3.127068 -0.086879775 -0.28600308
3.1798854 -0.12515198 -0.24304675
3.1267107 0.13199456 -0.27665019
3.3117096 0.099429034 -0.24136676
3.126843 0.35162967 -0.2692802
3.4265614 0.3426162 -0.23896591
4.0950837 -0.054311153 -0.048408613
3.8832216 0.22518848 -0.045969184
3.7262197 0.48167545 -0.045404345
3.4917119 -0.17735295 -0.14583096
3.4270489 -0.20099975 -0.20764241
3.1844089 -0.20440868 -0.2427664
3.1276352 -0.22210139 -0.2871016
3.4263101 0.071336314 -0.15122339
3.4265454 0.039574116 -0.2114767
3.1862195 0.017554207 -0.24081264
3.1269972 -0.0060414323 -0.27911359
3.4263804 0.31370941 -0.16268434
3.4265332 0.28001738 -0.21695575
3.1738069 0.23829474 -0.23888771
3.1268301 0.20993939 -0.27268758
3.4270091 0.52160412 -0.22418538
3.1470432 0.4569627 -0.23699822
3.1271386 0.42745975 -0.2678076
3.1273441 0.35511911 -0.29345572
3.7264943 -0.037619118 -0.12986338
3.7264109 -0.063376397 -0.088396907
3.8882766 -0.099821717 -0.045883741
3.7263412 0.22186095 -0.13375205
3.7261884 0.19671878 -0.085119642
4.1406755 0.1771656 -0.043288883
3.7240174 0.48154178 -0.13834625
3.726455 0.4583452 -0.082642451
4.3996806 0.49165651 -0.040353525
3.7266099 -0.1824532 -0.061529715
3.7268746 -0.21188068 -0.13245505
3.4271188 -0.21142814 -0.17360376
3.4273934 -0.2350637 -0.22706431
3.7263491 0.082155243 -0.072611392
3.7265446 0.050276298 -0.13683131
3.4267175 0.027972598 -0.17129068
3.4269204 0.0027073324 -0.21827358
3.7265911 0.34518197 -0.08498928
3.6727948 0.30888385 -0.13912246
3.4268017 0.2671417 -0.17021497
3.4269249 0.24059792 -0.21075296
3.4273701 0.50731498 -0.17039654
3.4274118 0.47980678 -0.20448035
3.4274788 -0.25482655 -0.2017781
3.4270327 -0.014970803 -0.20333633
3.4268904 -0.041715618 -0.16291061
3.7267816 -0.086658575 -0.13473551
3.7266405 -0.12114591 -0.077402413
3.4270694 0.22242102 -0.20613462
3.4268482 0.19682276 -0.15924926
3.7266612 0.17471668 -0.12386201
3.7264402 0.142216 -0.059802659
3.4275839 0.46034294 -0.21015407
3.4272912 0.43624842 -0.15675984
3.7270346 0.43676528 -0.1142263
3.7267454 0.4065823 -0.043409601
4.0179124 -0.23051646 -0.044986404
3.7269561 -0.23085746 -0.097510725
3.5665281 -0.23828359 -0.14280951
3.80163 0.05577838 -0.042317163
3.7266021 0.030072939 -0.095035665
3.6726038 0.0073413826 -0.14029117
3.7266283 0.31838882 -0.045100447
3.726737 0.29085135 -0.093427636
3.7268457 0.2652193 -0.13496304
3.1277773 -0.20058514 -0.26736295
3.2219083 -0.23925115 -0.24444348
3.127362 0.016982649 -0.26803496
3.2500479 -0.014875792 -0.24207208
3.4271138 -0.053299196 -0.21218587
3.4269929 -0.088037193 -0.15812224
3.1274221 0.23250794 -0.27025041
3.2635276 0.21117233 -0.23969734
3.4270122 0.18639769 -0.20203571
3.4489403 0.15435818 -0.14346361
3.1279542 0.44924781 -0.27397874
3.262363 0.43858737 -0.23732305
3.4274023 0.42747355 -0.19347773
3.6389201 0.41504431 -0.14091191
3.7270391 -0.25173286 -0.063114531
3.726613 0.0086513516 -0.053025477
3.7815347 0.27166608 -0.045386411
3.3525488 -0.11204001 -0.24365756
3.1276314 -0.12558831 -0.28055891
3.2379911 0.12576601 -0.2408192
3.127389 0.093611658 -0.28356916
3.1275029 0.34607854 -0.23980609
3.1276343 0.31263566 -0.28859937
3.1280775 -0.23448944 -0.28088972
3.1275449 -0.015054845 -0.2697562
3.3526244 -0.059766218 -0.24197954
3.1274981 0.20417455 -0.26061279
3.4272621 0.17851096 -0.23353028
3.1279418 0.42381465 -0.25336725
3.4276319 0.42247909 -0.21969752
4.474967 0.038050074 -0.046469394
4.2167659 0.3373903 -0.043309759
3.4277611 -0.092396453 -0.15308306
3.4280758 -0.12218539 -0.21750256
3.1283493 -0.12758639 -0.24389991
3.1286659 -0.15168141 -0.29252449
3.4277601 0.15062451 -0.1623323
3.4279916 0.11850593 -0.22081357
3.12817 0.089920342 -0.24130437
3.128401 0.064290009 -0.28412578
3.4282641 0.39349216 -0.17335027
3.4283996 0.35869613 -0.22587526
3.1284719 0.30722734 -0.24030304
3.1286104 0.28034773 -0.2773394
3.1292999 0.49867114 -0.2721462
3.1284709 0.20392427 -0.28651756
3.128962 0.42681536 -0.27440363
3.727766 -0.21147002 -0.11302772
3.7277119 -0.23682255 -0.076758496
3.7275341 0.049387462 -0.11552354
3.7274113 0.024789892 -0.072064467
4.412303 -0.023070671 -0.043138638
3.7277868 0.30898324 -0.11882488
3.7275999 0.28488991 -0.068151481
4.7267437 0.29887873 -0.038902611
3.7275014 -0.092190735 -0.077532418
3.6632845 -0.11864459 -0.14225614
3.4279592 -0.13028729 -0.18440318
3.428205 -0.15430887 -0.23594521
3.7275083 0.17140323 -0.088309936
3.5530074 0.13762687 -0.13906816
3.4278078 0.10857116 -0.18189326
3.4279788 0.082826763 -0.22700012
3.7280171 0.43500018 -0.10049114
3.4306974 0.37711558 -0.13609938
3.4281428 0.34801692 -0.18068595
3.4282312 0.3208842 -0.21936482
3.4280517 -0.16906966 -0.18901359
3.4280138 -0.19594456 -0.15312886
3.4274731 0.069506079 -0.19099662
3.4273536 0.043953739 -0.14863865
3.727277 0.0071098669 -0.11723737
3.7271743 -0.026048308 -0.057834961
3.4273758 0.30762589 -0.19414824
3.4271822 0.28253347 -0.14530621
3.7270045 0.26842237 -0.10669226
3.7385254 0.23753388 -0.040948551
3.4274924 0.52282405 -0.14307308
3.7273796 -0.11012506 -0.049669199
3.7276206 -0.13560297 -0.11001168
3.4278071 -0.1375834 -0.1430437
3.7269313 0.15215719 -0.054419823
3.7271078 0.12476952 -0.10772698
3.5036452 0.10047825 -0.13944802
3.7269793 0.41417992 -0.060098343
3.7270844 0.38589942 -0.10637755
3.5870516 0.3501249 -0.13685766
3.1284118 -0.12463655 -0.25072682
3.361779 -0.1714348 -0.23932813
3.4283578 -0.21001211 -0.20214728
3.428309 -0.24494942 -0.15219574
3.127893 0.092384838 -0.25203243
3.385787 0.0621568 -0.23689035
3.4276335 0.031147709 -0.19095613
3.5102749 -0.0050450228 -0.14049219
3.1278527 0.30808219 -0.25481331
3.3946164 0.29836351 -0.23445033
3.4274023 0.27084258 -0.18139654
3.7246721 0.25094485 -0.13789015
3.1282828 0.52571434 -0.25906551
3.4276621 0.51274383 -0.17332576
3.7273574 0.51696932 -0.12267397
4.6845999 -0.20433502 -0.043929093
3.7272167 -0.16129135 -0.066913314
4.6717877 0.12374455 -0.040124264
3.7269042 0.099099115 -0.056822754
4.6401238 0.44878501 -0.036392275
3.7270808 0.35937595 -0.047255371
3.1934636 -0.026991671 -0.23727915
3.1281393 -0.054155156 -0.28821063
3.1277583 0.19743513 -0.23923206
3.1280246 0.16476358 -0.29166007
3.1282377 0.41889191 -0.25013149
3.1284003 0.38423881 -0.29721457
3.1281624 -0.16219093 -0.26176387
3.3824294 -0.22170664 -0.24033579
3.1279542 0.08710672 -0.29805893
3.1277232 0.057126664 -0.25124034
3.4275458 0.016234141 -0.22738583
3.1280935 0.30439153 -0.29503053
3.1277738 0.27588409 -0.24262168
3.4275041 0.25884888 -0.21203597
3.12871 0.5230813 -0.2938346
3.1283162 0.49689239 -0.2357996
3.4279685 0.50362438 -0.19863825
4.5939851 0.47012863 -0.037530933
3.4273233 -0.009419404 -0.17002076
3.4276099 -0.040464509 -0.23246658
3.1278555 -0.054142829 -0.25572965
3.427326 0.23346007 -0.18024847
3.4182637 0.19914714 -0.23588158
3.127691 0.16307038 -0.25405025
3.1278961 0.13679886 -0.2950376
3.42783 0.47642741 -0.19235542
3.3293107 0.43061972 -0.23323011
3.1280086 0.38080648 -0.25402758
3.1281214 0.35320109 -0.28924024
3.1275239 0.053661071 -0.28741363
3.1276877 0.27512726 -0.27433592
3.1283579 0.49943867 -0.26349455
3.7269294 -0.12179005 -0.10300405
3.7268815 -0.14631826 -0.064603575
4.7033401 -0.24798207 -0.048837677
3.7268686 0.13856578 -0.10658231
3.7267611 0.11472121 -0.060961645
3.7272947 0.39856023 -0.1108909
3.7271285 0.3751604 -0.058021642
3.7268591 -0.0025860651 -0.096121185
3.4314053 -0.022956414 -0.14252557
3.4272454 -0.049777392 -0.19756468
3.3570566 -0.071240447 -0.24009718
3.7270563 0.2609129 -0.10788736
3.4271479 0.21763447 -0.14695023
3.4272776 0.18882667 -0.19602062
3.4139333 0.1621552 -0.2378217
3.4277477 0.45856538 -0.15305375
3.4277942 0.4282282 -0.19584493
3.427846 0.40028837 -0.23253654
3.4272931 -0.092732005 -0.17651157
3.4741087 -0.12214338 -0.14192365
3.7270796 -0.17041242 -0.11134728
3.7269676 -0.20444316 -0.056703977
3.4272885 0.14543404 -0.17857826
3.4972122 0.12058605 -0.1389737
3.7269342 0.091315262 -0.099593051
3.8436596 0.057751179 -0.042273834
3.4277675 0.38395318 -0.18174882
3.5048482 0.3648881 -0.13603278
3.727282 0.3528547 -0.088986218
4.3005996 0.35528445 -0.038293026
3.7273164 -0.023520419 -0.06697347
3.7274764 -0.050420485 -0.12512608
3.4276249 -0.059846453 -0.15497926
4.7210808 0.31091848 -0.043346141
3.727334 0.23859285 -0.072780177
3.7274277 0.20971179 -0.12393631
3.4275088 0.17813152 -0.14733897
3.7278442 0.5007112 -0.079604805
3.7278678 0.4715009 -0.12375122
3.4278762 0.41738212 -0.14063855
3.1280274 -0.056199465 -0.24131598
3.4279459 -0.10139673 -0.23352942
3.4278407 -0.13302676 -0.1877394
3.5598323 -0.17788793 -0.14463702
3.1279392 0.16051458 -0.24349172
3.4277778 0.13735229 -0.22952546
3.4275894 0.10759819 -0.1774987
3.7274325 0.072281092 -0.13813306
3.1283257 0.3766177 -0.24708386
3.428092 0.37575555 -0.22704576
3.4278316 0.34817857 -0.16877209
3.7276025 0.3356806 -0.12205854
4.2028332 -0.068704635 -0.046078946
3.7273839 -0.070046186 -0.079182625
4.1854892 0.22488917 -0.043381505
3.727309 0.19004181 -0.069995306
4.1505251 0.5154441 -0.040731866
3.7277217 0.45092738 -0.061360341
3.1404433 -0.17456859 -0.24093696
3.1279683 0.048867315 -0.24745257
3.1281576 0.27053532 -0.25739601
3.1288457 0.49278015 -0.26960024
3.127306 -0.055093121 -0.29388824
3.1272044 -0.086172029 -0.25085297
3.4271598 -0.14225961 -0.23069981
3.1269674 0.16158821 -0.28990799
3.1267757 0.13273679 -0.24126057
3.4266181 0.10017449 -0.2142622
3.1271067 0.379282 -0.28772077
3.1788392 0.35583273 -0.23887922
3.4265792 0.3430489 -0.1998138
3.4271417 -0.16799399 -0.1807901
3.3948727 -0.19513658 -0.24398853
3.1277575 -0.19635457 -0.27319112
3.426636 0.075447693 -0.19003877
3.335928 0.044379652 -0.24147466
3.1271245 0.021212857 -0.27062488
3.4266343 0.31787837 -0.20114829
3.2622144 0.27478686 -0.23906061
3.1269696 0.23837408 -0.26976264
3.1748192 0.49363387 -0.23676999
3.1272945 0.45678347 -0.27062637
3.1276796 -0.091195978 -0.28469044
3.1272132 0.13042483 -0.2699632
3.1272519 0.35220012 -0.257503
3.7265906 -0.026369648 -0.089830637
3.7265272 -0.0508602 -0.049364585
3.7263706 0.23314852 -0.093727894
3.7262423 0.20990713 -0.046009123
3.7266343 0.49386019 -0.098300077
3.7264454 0.4716447 -0.043268118
3.7269802 -0.17547049 -0.1028396
3.4272239 -0.18056084 -0.15261911
3.4274983 -0.20645675 -0.21230401
3.1915064 -0.2076124 -0.24156998
3.7267439 0.089168876 -0.11344898
3.426914 0.060511783 -0.15628816
3.4271176 0.032377169 -0.20970501
3.2511475 0.011954218 -0.23929463
3.7270122 0.35292131 -0.12555659
3.4270973 0.301052 -0.16135158
3.4272192 0.2709969 -0.2085261
3.2997425 0.2389607 -0.23696217
3.4278069 0.51183236 -0.20878765
3.336241 0.47320846 -0.23457441
3.4274561 -0.25033084 -0.16427524
3.4270294 -0.0098521886 -0.16596927
3.6862528 -0.046587355 -0.14277481
3.7268176 -0.078859761 -0.095523044
3.9362609 -0.1240039 -0.046123013
3.4270873 0.2281774 -0.16873097
3.7052155 0.21119827 -0.13992393
3.726732 0.18253052 -0.084471896
4.4434285 0.15962926 -0.042626776
3.4276257 0.4667702 -0.17253828
3.7080467 0.47037986 -0.13708447
3.7271426 0.4453004 -0.074452475
3.7269382 -0.19532272 -0.076274365
3.7271821 -0.22082931 -0.1394141
3.4274006 -0.21637587 -0.17289078
4.5922618 0.093874641 -0.042961575
3.7266846 0.067427509 -0.080520742
3.7268605 0.040092841 -0.13665457
3.427007 0.021865102 -0.16380166
4.051321 0.38206473 -0.040214207
3.7269261 0.32906726 -0.085794024
3.7270262 0.2996268 -0.13497919
3.4270937 0.26038632 -0.15573475
3.4276652 0.50040644 -0.1486479
3.2560284 -0.21496753 -0.24226318
3.2215471 0.01316315 -0.24003853
3.4280043 -0.021724313 -0.21955322
3.4278603 -0.052109201 -0.17183079
3.7277386 -0.10291941 -0.13642791
3.1752496 0.23394527 -0.23790175
3.428091 0.21685354 -0.21601692
3.4278691 0.18763766 -0.16204585
3.7276793 0.16045485 -0.11918195
3.1289096 0.4494518 -0.23699169
3.4286628 0.45649439 -0.21392323
3.4283719 0.4293671 -0.15366992
3.7281234 0.42499521 -0.10343581
3.806814 -0.22650242 -0.048059274
3.7278528 -0.2405899 -0.099203877
3.801234 0.040702038 -0.045543667
3.7275643 0.019120015 -0.089622498
3.7799261 0.30560648 -0.043069553
3.7277596 0.27919939 -0.080690108
3.1283808 -0.10070342 -0.2544392
3.1283212 0.12117325 -0.26284987
3.1287632 0.34260175 -0.2734898
3.1288199 -0.20518801 -0.28253943
3.1287107 -0.23702016 -0.24335887
3.1284904 0.012974775 -0.27743
3.1960926 -0.019771764 -0.23964064
3.4281161 -0.065305479 -0.20883295
3.1286404 0.23012269 -0.27410418
3.2659724 0.20568718 -0.23756336
3.4281049 0.1768087 -0.19311026
3.1292696 0.44790837 -0.27250457
3.3211386 0.44097754 -0.2354067
3.4285998 0.42080408 -0.17925298
3.4277227 -0.087016188 -0.1953284
3.2508769 -0.1062369 -0.24165063
3.1283104 -0.12429093 -0.28288102
3.4275172 0.15602572 -0.20512499
3.1919715 0.12189293 -0.23926273
3.1279497 0.093287721 -0.28084895
3.4278142 0.39829519 -0.21688367
3.1279261 0.34088817 -0.2379334
3.1280692 0.31008694 -0.2805883
3.1288283 -0.24066533 -0.28426883
3.12814 -0.018368451 -0.26789403
3.1279547 0.20305462 -0.25382638
3.1282735 0.42594296 -0.24190615
3.7276523 -0.19779573 -0.074618787
3.9849765 -0.24490361 -0.048411526
3.727241 0.063040525 -0.078130171
4.018733 0.034078911 -0.045554169
3.7273178 0.32334042 -0.082239226
4.0357051 0.31616369 -0.042689003
3.7275567 -0.082260236 -0.12033214
3.4277949 -0.095830262 -0.16683564
3.4280727 -0.12287192 -0.22454475
3.1283026 -0.12526973 -0.24433251
3.7273858 0.18134607 -0.13149998
3.4275534 0.14479639 -0.17105052
3.4277551 0.11543503 -0.2225302
3.1497347 0.090451777 -0.23894006
3.6408827 0.43726352 -0.13879161
3.4278042 0.38512146 -0.17675413
3.4279206 0.35433313 -0.22199622
3.1905715 0.31120583 -0.23678112
3.4264805 -0.16773975 -0.15210821
3.7264488 -0.22021332 -0.13521126
3.7263937 -0.25012752 -0.090188771
3.426193 0.071451895 -0.15481959
3.7260892 0.041366138 -0.13105495
3.7259619 0.012287938 -0.079046689
4.5720496 -0.0496534 -0.045591459
3.4263887 0.30960941 -0.15851168
3.7262192 0.30154991 -0.12795904
3.726023 0.27365997 -0.068951383
4.4481039 -0.11111755 -0.046462413
3.7260976 -0.10339562 -0.091640107
3.5982716 -0.12190511 -0.14417258
3.4264975 -0.13425051 -0.18296927
3.9593122 0.19434468 -0.044026304
3.725975 0.15824588 -0.096863948
3.5901871 0.12887877 -0.14198609
3.4262338 0.10404807 -0.17485242
3.7262928 0.45328009 -0.04915351
3.7263453 0.42034432 -0.10319703
3.5662482 0.37812504 -0.1398344
3.4264519 0.34223774 -0.16780397
3.3725142 -0.14534505 -0.24228403
3.4266274 -0.17870772 -0.21027988
3.4265654 -0.20980646 -0.16686717
3.3299072 0.089102544 -0.24022338
3.4262753 0.061117195 -0.20605037
3.4261303 0.031403501 -0.15636066
3.7260153 -0.010808409 -0.11745693
3.2756476 0.31608552 -0.23824373
3.4264066 0.29919156 -0.2032475
3.4261887 0.27175212 -0.14728466
3.7259984 0.25245503 -0.10095428
3.429776 0.51407534 -0.13972962
3.7264879 0.51847458 -0.085828416
3.7265873 -0.12777673 -0.057498366
3.7267427 -0.14950995 -0.10942342
3.7265248 0.13324125 -0.055492472
3.7266126 0.10960093 -0.10017158
3.7269442 0.39446995 -0.054157298
3.7269695 0.3706353 -0.091596678
3.1273291 -0.027043113 -0.26932219
3.127425 0.19462414 -0.27845097
3.1280208 0.41605124 -0.28991246
3.1272101 -0.13192256 -0.27050322
3.2601402 -0.17483531 -0.24319752
3.4270294 -0.22627215 -0.2094648
3.1269946 0.085677393 -0.26627535
3.3447957 0.052331652 -0.24138828
3.426645 0.016230715 -0.19268425
3.1272576 0.30298537 -0.26374331
3.4151757 0.2906096 -0.23948826
3.4267602 0.25891337 -0.17781346
3.1279995 0.52165693 -0.26288009
3.4273818 0.50372946 -0.16469014
3.4266517 -0.0086498009 -0.2125611
3.1268733 -0.027463799 -0.24293043
3.1271186 -0.054920137 -0.29495496
3.4267881 0.23365031 -0.22328636
3.1269157 0.19142056 -0.24734931
3.1270778 0.16235438 -0.29379305
3.4274232 0.47660682 -0.23608778
3.1274471 0.41110355 -0.25362623
3.1275165 0.38011393 -0.29447171
3.1271145 -0.17092508 -0.26894912
3.1268506 0.050674845 -0.25353417
3.1273737 0.30281132 -0.2982527
3.1270864 0.27215785 -0.24030703
3.1281796 0.52422285 -0.29240674
3.2135935 0.50633705 -0.23796014
3.726367 -0.11113344 -0.06532421
4.4405231 -0.18202247 -0.051205941
3.7264037 0.14987932 -0.069326542
4.4718151 0.12916665 -0.04826659
3.7269251 0.40996602 -0.073877409
4.4849467 0.44354713 -0.045300588
3.7264581 0.0029511868 -0.13991241
3.4266105 -0.018596958 -0.18278107
3.4267807 -0.046208881 -0.23852243
3.1269643 -0.05631518 -0.25514925
3.5921969 0.26099831 -0.14285544
3.4267952 0.22186694 -0.18758088
3.4268892 0.19184354 -0.23712289
3.1269808 0.15980658 -0.24804685
3.4274819 0.49744138 -0.14441577
3.4274712 0.46285295 -0.19396475
3.4274819 0.43129212 -0.23726942
3.1274741 0.3769367 -0.24236357
3.476408 -0.090174161 -0.14357278
3.7265491 -0.13210744 -0.12029914
3.7264619 -0.16201381 -0.073270269
3.4266927 0.15154235 -0.14284921
3.726557 0.12826777 -0.11608318
3.7264004 0.10038029 -0.062028803
3.4272327 0.38951504 -0.14644817
3.7270522 0.38880265 -0.11282835
3.7268338 0.36199981 -0.051722988
3.8585117 0.012417044 -0.04792532
3.7268677 -0.014118723 -0.10864905
3.4270012 -0.029724728 -0.1464591
3.4271495 -0.053838223 -0.19459955
3.7268255 0.27939829 -0.055244599
3.7268782 0.2473966 -0.11405309
3.4269466 0.20889288 -0.14507182
3.4270279 0.18416645 -0.18671685
3.7273781 0.50962991 -0.12067091
3.4273758 0.44907671 -0.14478432
3.4273875 0.42287272 -0.17995012
3.4275949 -0.070414886 -0.23222569
3.4274819 -0.098437436 -0.1929637
3.4273732 -0.12895696 -0.14770262
3.7272968 -0.18609703 -0.11286257
3.4274995 0.16714481 -0.23433612
3.4273059 0.14033519 -0.188641
3.4645417 0.11165553 -0.13960506
3.7269573 0.077690013 -0.094639815
3.3844736 0.40153027 -0.23359217
3.427614 0.37936863 -0.18564728
3.568769 0.36214381 -0.1369341
3.7271211 0.34110075 -0.077851146
3.7270315 -0.036367882 -0.06476
3.7272189 -0.05923745 -0.11463147
4.5742803 0.28171343 -0.037187427
3.7270319 0.22442873 -0.062378533
3.7271502 0.20020773 -0.10503685
3.7275238 0.48635611 -0.060725667
3.727571 0.46183214 -0.096168406
3.1283972 -0.17665862 -0.27189374
3.1280847 0.046338424 -0.27881214
3.1282794 0.26806748 -0.28805614
3.1289752 0.49031696 -0.29973859
3.1264288 -0.029487742 -0.29638565
3.1263697 -0.057193421 -0.25889581
3.4199653 -0.10597552 -0.24522381
3.4263103 -0.14233781 -0.19304481
3.1261859 0.18668762 -0.29835108
3.1260462 0.16007607 -0.2550689
3.4259081 0.13358854 -0.23548315
3.4258075 0.10014366 -0.17669895
3.1262016 0.3777793 -0.25286624
3.4259775 0.374327 -0.22688492
3.4258053 0.34304878 -0.16213463
4.423562 -0.090241693 -0.050939616
4.7116332 0.22546384 -0.048065696
3.4265287 -0.16910939 -0.2205956
3.1267972 -0.17240752 -0.25381088
3.4260345 0.07439924 -0.22957946
3.1262486 0.047776151 -0.25664562
3.4199226 0.31650168 -0.24002144
3.1261899 0.26669863 -0.26136145
3.1266155 0.48661527 -0.26802546
3.1268792 -0.060338546 -0.29857978
3.1267583 -0.09482161 -0.24960254
3.1265409 0.15852576 -0.28893176
3.1668351 0.12646326 -0.23885068
3.1266918 0.3783609 -0.28133625
3.2745802 0.35976294 -0.23660846
3.7259068 -0.016300581 -0.05099041
3.7257333 0.24390867 -0.054916024
3.7260451 0.50475574 -0.059290182
3.7266498 -0.17212769 -0.14283308
3.4269128 -0.17807014 -0.18950559
3.3364375 -0.19682735 -0.24043548
3.1274724 -0.20063961 -0.26918918
3.5323973 0.093585998 -0.14070496
3.4266033 0.062433977 -0.19337246
3.3369136 0.035706453 -0.23822799
3.1270106 0.015858321 -0.26120299
3.4266582 0.33610731 -0.1451311
3.4267855 0.30301249 -0.19881625
3.3224339 0.26684976 -0.23605464
3.127022 0.23191331 -0.2547107
3.292973 0.49629179 -0.23391785
3.127511 0.44969815 -0.24968956
3.6517365 -0.013395777 -0.13855667
3.7264338 -0.04182595 -0.10090368
3.726299 -0.071006835 -0.051784899
3.5600843 0.23774277 -0.13597165
3.7264194 0.21832252 -0.097157359
3.7262101 0.19105992 -0.040981147
3.4604869 0.47583282 -0.13354763
3.7268918 0.47953621 -0.09429305
3.8742957 0.46744066 -0.035957955
3.7390177 -0.15935107 -0.042919721
3.7266726 -0.18780254 -0.11271586
3.4269266 -0.18826404 -0.15465097
3.4272141 -0.21185488 -0.20736752
3.7261972 0.10549884 -0.053579234
3.7264094 0.074296102 -0.11708462
3.4265873 0.051059086 -0.15230358
3.4267986 0.02641285 -0.19851671
3.7265098 0.36935133 -0.065906242
3.7266402 0.33599189 -0.12268712
3.426733 0.28974196 -0.15112467
3.4268637 0.26379219 -0.19087711
3.4274135 0.50388467 -0.18438973
3.4281023 -0.23106422 -0.22098024
3.4277077 0.0080852937 -0.22254886
3.4276016 -0.01925707 -0.18130732
3.5829341 -0.055797037 -0.14440873
3.7274284 -0.097737819 -0.095900588
3.4277916 0.24556522 -0.22541814
3.4276135 0.21935064 -0.17773522
3.7082055 0.19836701 -0.14204077
3.7272995 0.1656481 -0.078464508
3.4283524 0.48376444 -0.2295939
3.428108 0.45903093 -0.17541313
3.7278924 0.46110886 -0.13384072
3.7276733 0.43023843 -0.062305562
4.5699487 -0.25127897 -0.048962262
3.7276077 -0.20836325 -0.084262036
3.7277732 -0.23142338 -0.13923314
4.2905607 0.072676443 -0.045711733
3.7273073 0.052506249 -0.081876926
3.7274146 0.028915385 -0.12960348
4.0201149 0.35819334 -0.042834405
3.7274952 0.31341046 -0.080269627
3.7275393 0.28839526 -0.12082574
3.1282787 -0.1054457 -0.2901586
3.12813 0.1165159 -0.2982015
3.1285241 -0.17861375 -0.2796481
3.1284492 -0.20705667 -0.24620526
3.1282098 0.038868196 -0.28040823
3.1280472 0.011162615 -0.24114841
3.4279094 -0.030274142 -0.22451462
3.427757 -0.065594517 -0.16981794
3.1283708 0.25449604 -0.2827712
3.1281257 0.22888318 -0.2377056
3.4279122 0.20948045 -0.21455705
3.4276779 0.17714226 -0.15387128
3.1290028 0.47097477 -0.28672996
3.1286833 0.44667122 -0.2358191
3.4284072 0.45082027 -0.20627059
3.4281013 0.4205496 -0.13958578
3.8495603 -0.24377251 -0.04940556
4.0720034 0.02060272 -0.047195289
4.3080001 0.31655693 -0.044717479
3.4284296 -0.092747949 -0.23480478
3.1286993 -0.10315093 -0.2651256
3.3851483 0.14988568 -0.2404864
3.1286111 0.11601561 -0.26885521
3.2465084 0.37837276 -0.23827802
3.1290123 0.3352046 -0.274537
3.1290262 -0.21139336 -0.29610321
3.1289401 -0.24773727 -0.250754
3.1286635 0.007930601 -0.2852945
3.2062466 -0.029394099 -0.24265085
3.1287868 0.22670582 -0.27653751
3.3313637 0.20081653 -0.24069157
3.1294 0.4471879 -0.2697458
3.4290926 0.44759262 -0.23708139
4.1149769 -0.22373158 -0.051002331
3.9083815 0.068071835 -0.048026454
3.7282476 0.33059484 -0.045996688
3.4660881 -0.070128083 -0.14604153
3.4284046 -0.098072588 -0.20722099
3.2159796 -0.11080381 -0.24310812
3.1288595 -0.12889695 -0.28191039
3.4282739 0.17490581 -0.15360139
3.4284053 0.14259785 -0.21140502
3.2120454 0.11275995 -0.24083628
3.1286922 0.087045483 -0.27427599
3.4288542 0.41736415 -0.16545781
3.4288979 0.38296622 -0.2172711
3.1944823 0.33480015 -0.23867632
3.1289973 0.30325669 -0.2681855
3.1297829 0.52247554 -0.2636137
3.1297834 0.45222124 -0.29013336
3.7283299 -0.18859266 -0.13060094
3.7282567 -0.21518949 -0.093276195
3.7281833 -0.24386115 -0.049152106
3.7281754 0.071560077 -0.1334518
3.7280297 0.046372183 -0.088955164
3.8920465 0.014301564 -0.043491066
3.7285049 0.33129168 -0.13717227
3.7282917 0.30660185 -0.085499242
4.1345363 0.29874033 -0.040262084
3.7280171 -0.06908197 -0.061951276
3.7282465 -0.099661753 -0.13010235
3.4284616 -0.10826989 -0.16877484
3.4286995 -0.1323708 -0.2195235
3.7281117 0.19453378 -0.073332258
3.728265 0.16201973 -0.13477518
3.4283917 0.13058612 -0.16675563
3.4285536 0.10534965 -0.21103211
3.7287078 0.45835423 -0.086033396
3.6667569 0.41904387 -0.13689153
3.4288092 0.37021694 -0.16594866
3.4288895 0.34358236 -0.20378785
3.4287884 -0.15106975 -0.205615
3.4286802 -0.17855529 -0.1689125
3.6977613 -0.23392577 -0.14329194
3.4286714 0.087465607 -0.20746376
3.4284806 0.061282989 -0.16429961
3.7283175 0.025485689 -0.13335393
3.7281246 -0.0083570927 -0.073189855
3.4290347 0.32513452 -0.21055658
3.4287672 0.29998767 -0.16092682
3.7285419 0.28690144 -0.12278643
3.7282739 0.25489959 -0.055892777
3.7289312 0.52096003 -0.039747544
4.0260706 -0.10554464 -0.040078677
3.7273402 -0.11478391 -0.089644752
3.662096 -0.13401943 -0.13831787
3.7996221 0.17355569 -0.037837178
3.7269855 0.1455953 -0.087705337
3.7271857 0.12066728 -0.13334273
3.7269907 0.43463659 -0.041302063
3.727119 0.40691715 -0.086608306
3.727241 0.38112751 -0.12508786
3.1284187 -0.03028648 -0.29895622
3.1283228 -0.10317151 -0.26421916
3.2052283 -0.13701013 -0.23691164
3.428154 -0.18747702 -0.21537539
3.4280324 -0.22360046 -0.16478243
3.1279743 0.11328583 -0.2655721
3.226778 0.085800022 -0.2345766
3.4276004 0.053006995 -0.20427109
3.4273794 0.0195143 -0.14764073
3.1281011 0.32914987 -0.26846021
3.2338898 0.3104403 -0.23225808
3.4275401 0.29342702 -0.19484639
3.479203 0.26384369 -0.13563477
3.7272611 -0.13734241 -0.048018426
3.7603712 0.12312854 -0.039349198
3.9537828 0.40059179 -0.036169533
3.337455 -0.005527304 -0.23542574
3.1282263 -0.027473683 -0.27201727
3.2154517 0.22675529 -0.23290047
3.1280613 0.19147494 -0.27592272
3.1282005 0.44540238 -0.23530932
3.1283858 0.41063678 -0.28185576
3.128634 -0.14031833 -0.27778974
3.2346091 -0.18466838 -0.24160048
3.1284363 0.078968562 -0.26783744
3.3767703 0.04083718 -0.23976126
3.1287272 0.29788959 -0.25984812
3.4284432 0.28247651 -0.230196
3.1295111 0.51926035 -0.25373605
4.5002904 -0.14546552 -0.046876103
4.247077 0.16660617 -0.044101782
4.0096893 0.44426325 -0.041633006
3.4281721 -0.23140548 -0.14752838
3.4279337 0.013202392 -0.1567065
3.4281602 -0.017955275 -0.21854573
3.1283736 -0.0331809 -0.24251078
3.1286137 -0.057928238 -0.28860587
3.4282 0.25555816 -0.16756579
3.4283412 0.22195567 -0.22345157
3.1284528 0.18407378 -0.24135661
3.1286089 0.15770838 -0.28165978
3.4289668 0.49880445 -0.18023223
3.429013 0.46298045 -0.23011546
3.1290157 0.4025878 -0.24179399
3.1290805 0.37487209 -0.27629006
3.1287508 0.078231364 -0.29902849
3.1290386 0.29984674 -0.28622553
3.129837 0.52453411 -0.2757327
3.7278607 -0.099926129 -0.11805817
3.7277651 -0.12510093 -0.078626268
4.1247888 -0.18155622 -0.045709569
3.7279413 0.16044354 -0.12161304
3.7277775 0.13528933 -0.074998148
4.4157333 0.10759807 -0.042740732
3.7285056 0.41998434 -0.12599105
3.7282801 0.39656091 -0.072133981
4.7186642 0.43920225 -0.039347649
3.7288284 -0.24583478 -0.067640223
3.7286 0.019382408 -0.078418985
3.6721945 -0.0099789621 -0.14081919
3.4290004 -0.028818456 -0.17993914
3.4292188 -0.053527329 -0.22868678
3.7288752 0.2829825 -0.090508267
3.5533602 0.24325734 -0.13840362
3.4291027 0.20984387 -0.17862724
3.4292412 0.18392418 -0.22094539
3.429641 0.47991106 -0.13659197
3.429692 0.45009676 -0.17861065
3.4297454 0.42268807 -0.21449579
3.4290388 -0.071509749 -0.19441445
3.4289289 -0.098321982 -0.1557681
3.7288289 -0.14876737 -0.12892589
3.7287271 -0.18271603 -0.073407665
3.4290895 0.16668032 -0.19679315
3.4289052 0.14107706 -0.15167338
3.7287438 0.11295855 -0.11756345
3.7285664 0.080425121 -0.055294555
3.4296217 0.40480971 -0.20035081
3.4293666 0.38016263 -0.14872704
3.729151 0.37469095 -0.10742315
3.8051698 0.34927079 -0.041073117
3.7285447 -0.004163126 -0.050412942
3.7286863 -0.030223249 -0.10778905
3.4981441 -0.044001423 -0.14294183
3.7287779 0.25740072 -0.055407207
3.7288513 0.22996503 -0.10575266
3.5898869 0.20103841 -0.14029361
3.7295043 0.52046394 -0.061325286
3.7295074 0.49200794 -0.10462502
3.6725736 0.46011743 -0.13750719
3.1291728 -0.034557663 -0.2539809
3.3403344 -0.073636815 -0.23789948
3.4288974 -0.11090785 -0.20023698
3.42874 -0.14508505 -0.14769268
3.1291909 0.18165573 -0.25599188
3.3582022 0.15918064 -0.23558308
3.4287479 0.12969877 -0.18983415
3.5481935 0.096212499 -0.13910535
3.1296837 0.39798933 -0.25948316
3.3610229 0.39306849 -0.23328523
3.4290926 0.37046197 -0.18101627
3.7288113 0.35949537 -0.13477451
3.7282817 -0.0507432 -0.059732351
3.7283089 0.20938857 -0.050210878
3.7288253 0.47114855 -0.041158646
3.2819729 -0.16342209 -0.23898222
3.1295807 -0.1790365 -0.28431723
3.1772463 0.071124397 -0.23639417
3.1292958 0.040690083 -0.28688443
3.1293042 0.29305163 -0.24132559
3.1295021 0.25965533 -0.29150036
3.1301081 0.5156548 -0.25345567
3.130197 0.48011756 -0.29824358
3.7159052 -0.036286678 -0.14185865
3.7284527 -0.063330121 -0.10094101
3.7283504 -0.091909848 -0.052484792
3.6218867 0.21970665 -0.13895395
3.728492 0.19753268 -0.096934959
3.7478967 0.16987678 -0.042138148
3.5199697 0.46155789 -0.13622664
3.7290189 0.45859528 -0.093799174
3.9595101 0.45199677 -0.038896192
3.7280188 -0.17902383 -0.049507458
3.7282364 -0.20790146 -0.12031092
3.4284499 -0.20677653 -0.16225161
3.4286888 -0.23049276 -0.21552977
3.7277172 0.085707948 -0.060997266
3.7278717 0.054383464 -0.12505829
3.4280219 0.032754555 -0.1602494
3.4281938 0.0080150124 -0.20701131
3.7279189 0.34948063 -0.073701516
3.7280004 0.31604049 -0.13103522
3.4280772 0.27144054 -0.15941936
3.4281764 0.24543148 -0.1997274
3.4286191 0.51231533 -0.15978508
3.4286408 0.48535624 -0.19361734
3.4283893 -0.0095759667 -0.21767099
3.4282689 -0.036915269 -0.17701031
3.6234026 -0.076437518 -0.14304259
3.7280693 -0.11709915 -0.092326969
3.4283924 0.2279346 -0.22052535
3.4281952 0.20234597 -0.17340845
3.7280257 0.17953791 -0.13908811
3.7278397 0.14640383 -0.074851803
3.4288726 0.46596375 -0.22466475
3.4286063 0.44188389 -0.17105712
3.7283673 0.44169858 -0.12962115
3.7281139 0.41088462 -0.058656231
3.7283103 -0.2277144 -0.085612431
4.2009778 0.052464791 -0.043404728
3.7279177 0.034011815 -0.083183177
3.7280748 0.0097596748 -0.13159798
3.9429233 0.33306932 -0.040816706
3.7280145 0.29425114 -0.081576303
3.7281024 0.26924738 -0.1228123
3.1291363 -0.1224583 -0.29083985
3.1289098 0.099645987 -0.29868385
3.1288564 -0.19701414 -0.27787504
3.1287875 -0.22547856 -0.24493587
3.1285462 0.020675538 -0.2786071
3.1304185 -0.006555961 -0.24006049
3.4282515 -0.050332557 -0.22351852
3.4281058 -0.085052237 -0.16931558
3.1287115 0.2368675 -0.28092757
3.1431859 0.21119241 -0.23791127
3.4282641 0.1894955 -0.2135137
3.4280362 0.1571908 -0.15331787
3.1293471 0.45318136 -0.28483763
3.141809 0.43021575 -0.23576415
3.4287672 0.43069652 -0.20517409
3.4353478 0.40106165 -0.13944598
3.9537058 0.0015557113 -0.046987105
4.1760802 0.286612 -0.044060335
3.4283197 -0.11248162 -0.23703146
3.1285949 -0.12105035 -0.26758754
3.3627906 0.13043706 -0.23982154
3.1284652 0.098260939 -0.27071497
3.2275364 0.35834807 -0.23715891
3.128824 0.31740582 -0.27580351
3.1288142 -0.22994949 -0.29437727
3.128408 -0.0098599568 -0.2829867
3.2254384 -0.048732456 -0.2428544
3.1284888 0.20893899 -0.27366066
3.3540831 0.18224402 -0.24049383
3.1290588 0.42925435 -0.26629007
3.428761 0.42722225 -0.2339099
4.0261979 0.044502854 -0.048419636
3.8176887 0.31477818 -0.045126136
3.4337823 -0.086145997 -0.14129929
3.4285111 -0.11589572 -0.20518956
3.1863382 -0.12588423 -0.23858804
3.1290951 -0.14528829 -0.28101692
3.428107 0.15668105 -0.15127012
3.4283392 0.12429713 -0.20956434
3.1836321 0.095766656 -0.23664701
3.1287551 0.070825636 -0.27354088
3.4285207 0.39961243 -0.16331504
3.4286592 0.36457545 -0.21561983
3.1666007 0.31648284 -0.23474285
3.1288893 0.28702453 -0.26762992
3.1295025 0.50548881 -0.2632513
3.1292076 0.43462428 -0.28892449
3.728111 -0.20767528 -0.12731156
3.7280588 -0.23360203 -0.090630874
3.7278183 0.053311709 -0.13038892
3.7276955 0.02751747 -0.086541519
3.9711299 -0.0071799243 -0.044338554
3.7280114 0.31300876 -0.13432929
3.7278209 0.28839061 -0.083288454
4.2258978 0.28133008 -0.041386757
3.727679 -0.088636644 -0.065195128
3.7279143 -0.11863218 -0.13391913
3.4281342 -0.12564813 -0.172864
3.4283795 -0.14980458 -0.22419117
3.7276351 0.17570759 -0.076639324
3.7277975 0.14315733 -0.13866399
3.427938 0.11333714 -0.1709068
3.4281092 0.088070601 -0.21576492
3.7280931 0.43937841 -0.089418821
3.6243286 0.39715743 -0.13813873
3.4282281 0.35289419 -0.17018439
3.4283204 0.32625708 -0.20860434
3.4277468 -0.16811918 -0.20125565
3.4276705 -0.19562383 -0.16514005
3.4273722 0.07058426 -0.20306829
3.4272125 0.044407237 -0.16048706
3.7270906 0.0071343398 -0.12988852
3.7269356 -0.02670872 -0.070307277
3.4274795 0.3082203 -0.20611165
3.4272423 0.28310147 -0.1570569
3.7270367 0.2685622 -0.11925783
3.7268043 0.23658906 -0.052947439
3.4277563 0.52348983 -0.15478964
3.7353637 0.50331503 -0.037014633
3.9410663 -0.12476192 -0.043714836
3.7271564 -0.13660417 -0.096404463
3.599566 -0.15081182 -0.14158079
3.7266984 0.15064497 -0.041011333
3.7268577 0.12389684 -0.094074026
3.7031875 0.099125825 -0.13891821
3.7269616 0.41276327 -0.046605833
3.7270477 0.38447425 -0.092617311
3.7271342 0.35875741 -0.13180812
3.1278329 -0.12252883 -0.26352549
3.2314579 -0.15912953 -0.23948236
3.4277031 -0.2087625 -0.2157423
3.4276218 -0.24431133 -0.16565278
3.1274924 0.094611384 -0.26480901
3.2545238 0.066114016 -0.23718314
3.4271736 0.032525808 -0.20454647
3.427002 -0.0015613243 -0.14843225
3.1276283 0.3104268 -0.26762173
3.2629387 0.29271391 -0.23489428
3.4271369 0.27234209 -0.19504839
3.5108087 0.24364394 -0.13846207
3.1282346 0.52762258 -0.27196813
3.2567215 0.52037728 -0.23261902
3.427593 0.51435953 -0.18711233
3.6991987 0.51460052 -0.13578856
3.7272525 -0.15868184 -0.051546521
3.7268906 0.10184143 -0.041279074
3.8417456 0.36982647 -0.035300821
3.3145163 -0.024388824 -0.23512141
3.1282818 -0.045946527 -0.27438468
3.195904 0.20717388 -0.23229355
3.1281424 0.17308357 -0.27779469
3.1282969 0.42679441 -0.23617695
3.1284935 0.39213735 -0.2832455
3.128346 -0.15519695 -0.2713435
3.2531803 -0.20205629 -0.23743764
3.1278801 0.064229764 -0.26064941
3.3985231 0.024173073 -0.2347808
3.1279051 0.28310353 -0.25191563
3.4276032 0.26612216 -0.22213076
3.1284249 0.504237 -0.24503864
3.4280357 0.51101989 -0.20869358
4.6526623 -0.17580232 -0.040681873
4.3815889 0.14816059 -0.037337407
4.1292615 0.43515566 -0.034390707
3.4272239 -0.0032998049 -0.15447357
3.4275682 -0.034320891 -0.21691744
3.1278338 -0.047461614 -0.24152802
3.1281667 -0.07211227 -0.28821129
3.4272184 0.23910442 -0.16459389
3.4274733 0.20565274 -0.22108763
3.1276538 0.16986245 -0.23971447
3.127897 0.14360118 -0.28060386
3.4277151 0.48218942 -0.1765191
3.4278703 0.4465346 -0.22703294
3.1279569 0.38771579 -0.23950441
3.1281028 0.36011517 -0.27460217
3.1278498 0.060412638 -0.29761013
3.1280098 0.28199244 -0.28436542
3.128679 0.50643975 -0.27341914
3.7270997 -0.11954934 -0.11500287
3.7270317 -0.1454335 -0.076282173
4.2081861 -0.21061642 -0.046732493
3.7270365 0.14028732 -0.1182574
3.7269013 0.11574043 -0.072328001
4.5131917 0.083728328 -0.04346073
3.7274582 0.40038383 -0.12229429
3.7272615 0.37692896 -0.069132477
3.7268965 4.2576052e-05 -0.081460759
3.6254702 -0.027161151 -0.14152938
3.4273088 -0.046349064 -0.18392527
3.4275327 -0.071007118 -0.23329771
3.7270925 0.26366633 -0.093083963
3.5111444 0.22376309 -0.13879497
3.427336 0.19237146 -0.18219985
3.4274819 0.16651586 -0.22513886
3.4277925 0.46220249 -0.13913743
3.427851 0.43248135 -0.18177764
3.4279115 0.40455002 -0.21829602
3.4272723 -0.089108564 -0.18976068
3.4271629 -0.1159407 -0.15171108
3.7270734 -0.16808799 -0.12514822
3.7269676 -0.20207052 -0.070234329
3.4272242 0.14917736 -0.19204241
3.4270375 0.12357608 -0.14751193
3.7268772 0.093789108 -0.11366545
3.7266943 0.061249919 -0.051988877
3.4276564 0.38720202 -0.1954831
3.427397 0.36257696 -0.14444928
3.7271764 0.35610363 -0.10338922
3.8666131 0.33319974 -0.039745335
3.7264693 -0.018385779 -0.050929312
3.7267036 -0.045203552 -0.10892218
3.4394474 -0.055314049 -0.14076091
3.7262075 0.24320322 -0.056289904
3.7263713 0.21569559 -0.10724362
3.5286078 0.18606347 -0.13849381
3.7264388 0.50607425 -0.062591545
3.7265272 0.47692603 -0.10651721
3.6088703 0.43976343 -0.13613427
3.1273348 -0.048872117 -0.25192735
3.3676963 -0.090087011 -0.23907572
3.4272068 -0.12595633 -0.19899829
3.4271259 -0.16071017 -0.14694799
3.1269834 0.16796009 -0.25404713
3.3868067 0.1442101 -0.2370003
3.426656 0.11419275 -0.18872164
3.5775521 0.080544546 -0.14048582
3.1271083 0.38418224 -0.25763744
3.3906786 0.38083979 -0.2349294
3.4265964 0.35488731 -0.18001655
3.7263534 0.34264603 -0.13418296
4.6765351 -0.085673377 -0.04433668
3.7265198 -0.066076212 -0.064938925
4.6569619 0.24203426 -0.041454542
3.7261086 0.1941382 -0.055755194
3.7261851 0.45576677 -0.047063313
3.2567024 -0.17692249 -0.23998474
3.1279719 -0.19349492 -0.28799874
3.1548462 0.057106517 -0.23770642
3.1273038 0.02643051 -0.29069567
3.1268833 0.27885038 -0.24486846
3.127126 0.2453993 -0.29545632
3.1272962 0.50122035 -0.25714922
3.1275179 -0.079460248 -0.26057303
3.4274921 -0.13533987 -0.24140033
3.1271627 0.16898434 -0.29968378
3.1269684 0.13956515 -0.25093755
3.4268165 0.10661186 -0.22493546
3.1271851 0.38625669 -0.29751161
3.1269078 0.35877514 -0.24317038
3.4266415 0.35020757 -0.21052049
3.4273727 -0.16256465 -0.1656421
3.4277289 -0.19202581 -0.23206788
3.1280143 -0.1904521 -0.25921035
3.4267371 0.081601903 -0.17484418
3.427022 0.04932981 -0.23533265
3.1272638 0.02777401 -0.25656027
3.4266086 0.32355514 -0.1858428
3.3883944 0.28739196 -0.23665817
3.1269939 0.24504869 -0.2555683
3.127193 0.21814179 -0.29464421
3.2946734 0.51501846 -0.23418431
3.1272035 0.46357849 -0.25624859
3.127311 0.43523851 -0.2895228
3.1280193 -0.083238609 -0.29363516
3.1274412 0.13792461 -0.27852944
3.1273675 0.36035609 -0.26574075
3.7267714 -0.023308031 -0.09962561
3.7266922 -0.048539624 -0.05885724
3.7264183 0.23633517 -0.10295918
3.7262652 0.21234411 -0.054950867
3.726553 0.49714157 -0.10702465
3.7263324 0.47416052 -0.051723205
3.7278342 -0.17461091 -0.091589853
3.4931386 -0.18449694 -0.14663903
3.4282403 -0.20485823 -0.20173268
3.3126895 -0.21745244 -0.24380606
3.7276697 0.090147443 -0.1025037
3.4277909 0.062296096 -0.14608042
3.4279363 0.034698974 -0.19934687
3.3770144 0.010421623 -0.24168074
3.7280078 0.35399625 -0.11484111
3.4280438 0.30294207 -0.15132588
3.4281144 0.27343071 -0.19832557
3.428194 0.24627894 -0.23931648
3.4287751 0.51376498 -0.19868268
3.428777 0.48564222 -0.23324375
3.4283223 -0.24845554 -0.17869319
3.4279456 -0.0084486557 -0.18048032
3.4823699 -0.037007011 -0.14418998
3.7277648 -0.07828898 -0.11079572
3.7276874 -0.11149222 -0.053785894
3.4280508 0.22969437 -0.18337512
3.5002465 0.20655116 -0.14173009
3.7277403 0.18323396 -0.099943608
3.9874589 0.15452635 -0.045150727
3.4286351 0.4683826 -0.18737945
3.5028861 0.45140556 -0.13927096
3.7282107 0.44611001 -0.090188146
4.4678235 0.47623798 -0.04191969
3.7278264 -0.19505465 -0.064709596
3.7280071 -0.22063573 -0.12765579
3.4281933 -0.21534581 -0.1617718
3.7276156 0.067174897 -0.069230363
3.727736 0.040423591 -0.12513895
3.4278514 0.023032032 -0.15288156
4.5131044 0.41182604 -0.042347524
3.7279007 0.32956612 -0.074709423
3.727951 0.30071819 -0.12362137
3.4279895 0.26167086 -0.14494731
3.4369886 0.50273287 -0.1385029
3.1329308 -0.19908006 -0.24275708
3.1278887 0.019680554 -0.24347904
3.4277709 -0.018659899 -0.23367293
3.427639 -0.049643852 -0.1857706
3.6370866 -0.09527541 -0.14549886
3.1280241 0.2358976 -0.24613944
3.4278371 0.22003645 -0.23018603
3.4276273 0.19082426 -0.1760499
3.7274466 0.16297644 -0.13426234
3.1286321 0.45276725 -0.25020531
3.428385 0.45918623 -0.22820087
3.4281087 0.43206719 -0.16780201
3.7278693 0.42763254 -0.11869239
3.7276199 -0.24117883 -0.087197162
4.1939979 0.032394718 -0.046693258
3.7273061 0.019332239 -0.077649139
4.1708832 0.32485858 -0.044060927
3.7274768 0.27952319 -0.068695948
3.1280582 -0.09632735 -0.24354225
3.1279795 0.12620105 -0.25209969
3.1284029 0.34774888 -0.26284134
3.1286449 -0.20144573 -0.29510483
3.1285453 -0.2332793 -0.25578469
3.1283021 0.016830726 -0.29000536
